-3.92043 -14.8223 12.2886 
-0.150597 -14.502 6.43551 
-4.31505 7.40029 2.63339 
-5.87491 9.98931 -5.63413 
3.1844 6.74969 -0.0641577 
-0.0988907 -13.633 5.68826 
4.44973 -3.57908 1.35641 
-3.14556 0.496444 -2.57462 
-0.632017 4.91159 5.2609 
-3.56262 -16.167 7.53676 
-5.60015 4.64526 -2.55383 
-5.11748 10.7087 -9.19842 
1.84682 3.23633 5.13696 
-2.23814 -16.843 7.02414 
5.09934 5.69126 -4.65449 
-1.02784 -3.57247 -1.10041 
-5.9899 8.88634 -5.9736 
-4.7416 -5.97842 4.86613 
5.1637 1.47714 -0.339621 
-5.12179 -1.19658 3.59608 
3.38802 8.71378 -5.49925 
-4.049 -21.6038 12.0178 
-5.19346 11.6146 -4.60914 
-1.28257 12.0971 -5.04112 
0.311771 3.50083 6.35958 
-4.76548 -10.4153 6.68666 
2.09008 3.70065 -11.8478 
-5.30762 -10.2041 9.85031 
2.80427 -0.778867 6.28981 
-4.96259 -14.9441 11.943 
-3.47652 7.47702 3.12175 
2.16656 9.00238 -2.63384 
-5.24726 9.34554 -1.00436 
-4.41382 -14.1798 8.04699 
3.66269 1.94132 -11.248 
-0.797418 9.03014 1.13591 
-1.63367 -8.28983 2.42326 
-4.86165 -14.6885 8.89236 
-5.38748 6.2486 -6.19859 
2.57527 -7.95485 5.57737 
3.52943 5.52947 0.539836 
-2.84309 -1.64194 9.04046 
1.36176 -4.43328 7.96741 
2.03535 -1.47357 -10.3031 
-5.57724 3.04578 2.81415 
-3.20192 -0.852638 8.53382 
3.1029 -2.25266 -9.94498 
1.60867 8.58657 -0.713225 
-2.02954 5.71252 -12.3094 
1.96286 -9.17005 2.21083 
4.57909 0.712615 1.6275 
4.58372 -1.33954 1.51988 
-1.54302 11.0971 -1.68162 
-4.75708 -22.4162 11.6776 
5.43624 1.22394 -1.62614 
-4.26466 5.40225 4.43251 
2.14013 -0.375257 6.92667 
-4.62945 -1.88137 2.8733 
-3.25783 12.3269 -4.28386 
0.51171 -11.6245 8.51077 
0.807317 -5.32653 -1.25775 
-0.712685 -8.27731 1.73565 
-5.73997 3.496 0.352267 
-1.00568 7.91643 -12.976 
4.47152 5.49632 -1.99335 
1.73805 -8.51063 1.31154 
3.9607 -0.860554 -10.7574 
-4.20336 11.2381 -2.32115 
0.885336 10.5936 -4.44074 
-4.93779 -13.9419 11.2775 
-1.62906 2.39611 7.39799 
-3.78208 3.36665 -6.8792 
5.05544 4.43607 -2.51395 
2.4463 -9.24884 3.27527 
-4.47035 11.4727 -9.24327 
-5.4142 11.1516 -5.69099 
5.33495 0.399824 -10.4128 
-0.290973 -9.89603 9.86259 
-0.56854 10.8047 -2.23652 
-4.60508 -6.44601 10.0081 
0.661813 -0.912691 -9.15144 
-2.41004 -8.52519 3.18836 
0.025819 9.44894 -12.2931 
4.89148 5.2516 -3.02042 
-0.764883 12.162 -7.4836 
-5.10522 -17.9797 11.4993 
-2.00728 12.3936 -8.21726 
-6.02634 7.36668 -4.35627 
1.70389 -5.72397 7.58125 
-3.10574 -12.8016 12.1941 
-0.844053 0.17809 -7.49748 
3.92391 -5.56646 2.0156 
2.46692 7.76729 -0.462794 
-1.38368 -17.3115 7.67687 
-0.875458 1.91141 -10.8631 
-5.08974 0.818004 5.84009 
-1.87413 -5.90306 10.8567 
-5.26969 -5.68911 8.41932 
4.05891 -3.4738 -7.35475 
-2.27726 6.01038 4.83163 
3.28973 -4.3137 -4.28695 
3.60325 -4.37836 4.80911 
-1.71299 -3.08866 -0.754001 
-3.44776 -4.50798 2.51525 
-2.94335 8.29572 2.8188 
-5.28649 6.82837 1.72604 
-1.89927 11.6405 -2.45715 
3.52509 7.25218 -9.81526 
5.07708 -0.347548 0.0498078 
1.82818 -10.2341 5.40759 
-5.88166 7.90524 -5.7284 
5.28426 6.24384 -6.03058 
0.546803 -7.87558 0.810039 
-2.92513 -4.29053 1.72852 
3.0034 9.23584 -8.13898 
-2.02475 -7.32987 2.30337 
4.23489 7.99268 -6.86074 
-1.07952 -17.12 10.077 
6.39685 1.37902 -8.40003 
0.0493015 11.215 -4.77182 
5.21346 -1.69786 -1.21753 
-2.02436 -11.0302 4.26834 
-1.53741 1.6763 -9.50326 
-3.58295 -18.9275 12.3113 
-0.975911 -0.598821 -5.02077 
-1.96302 -15.8226 11.9454 
4.28662 4.0275 -10.3305 
4.54176 -2.53862 1.19509 
-5.43963 -6.72722 7.27231 
-0.511918 -15.8745 7.68338 
1.76939 10.411 -6.30848 
1.5163 -6.442 -0.699655 
-0.238916 -0.583678 -7.06483 
-5.27247 -15.0345 10.9094 
-1.35657 -4.27946 -0.111269 
1.03847 -3.75257 -3.3582 
4.97362 6.59646 -8.31814 
-2.68038 -19.5418 9.08745 
0.470064 -1.15139 -7.88171 
-6.2959 7.33787 -2.93809 
-3.99273 3.93266 -7.62059 
4.2724 -4.24398 2.63908 
2.09394 0.622715 -11.4206 
0.249996 -14.2071 8.11032 
1.31399 9.64465 -2.52927 
3.19671 1.82013 4.78251 
2.67599 3.00704 -11.6433 
-4.03458 -0.991559 8.08585 
-1.00035 12.1497 -6.47894 
-5.00654 -20.6683 11.9073 
4.84312 0.980871 0.687633 
3.85289 0.757915 4.26139 
-0.874449 -9.75289 10.6472 
-2.61345 -13.83 12.1755 
4.89533 4.1297 -1.59912 
-1.2791 -15.6435 10.8729 
-0.243497 -4.54055 9.43497 
-1.87364 -13.1554 11.8707 
5.3346 3.22686 -2.37268 
-3.10161 -13.4987 6.36582 
2.77375 -8.36642 4.42187 
-3.6754 -12.0999 6.27607 
-0.324984 9.25071 0.418143 
4.10755 6.35138 -2.1999 
3.30225 -5.36668 5.13021 
3.07902 -7.24269 1.32183 
-2.21156 -0.376973 8.65863 
5.62131 -1.90231 -4.64124 
-4.46664 9.7951 -0.502922 
6.25774 -0.233063 -5.73802 
-4.34065 -1.35803 1.78292 
1.21157 -3.34529 -4.42357 
-5.1058 -5.07752 5.15536 
-2.35779 -11.9471 11.8597 
-5.41746 9.97743 -8.41964 
4.62445 2.22435 0.87771 
-5.41968 1.39524 4.15351 
-0.0449137 -14.6681 9.11552 
-5.82241 3.36807 1.45303 
-3.00392 -3.59715 10.0585 
5.37841 -0.693407 -1.31779 
-5.06064 -21.2416 10.9765 
-5.09411 6.03262 -8.94998 
-0.854281 5.68216 -12.4562 
-5.05733 -11.6279 8.309 
-5.3488 -3.13632 5.42955 
2.49938 5.63946 2.01374 
-2.00823 -16.9437 12.0024 
-1.56431 4.42801 5.90785 
-2.94889 -6.69396 2.95255 
5.91558 2.44648 -9.48603 
6.31866 -0.805592 -6.77832 
-3.01239 -15.6778 12.367 
-1.25609 -12.5693 4.91914 
4.44491 1.75629 1.77893 
-4.36047 -3.61097 3.41071 
2.56086 -5.72271 -1.51161 
-0.186845 -15.4683 8.5034 
-5.32309 -0.795598 5.94692 
-2.11442 -3.72439 0.300661 
1.49013 -3.06079 -5.58552 
-0.744287 -13.4935 10.5166 
5.52979 1.47131 -2.89025 
4.09163 8.00455 -5.56486 
-3.90919 6.50253 3.63301 
-4.86949 -18.0943 10.0456 
-3.32769 -0.335658 -1.18146 
-2.27762 -0.650281 -2.52837 
1.08909 0.675977 -11.1943 
-0.650557 -15.41 9.82189 
-4.99285 5.41553 -6.90497 
-0.662493 8.2693 2.00613 
-2.99284 10.8444 -11.5128 
-2.63468 -20.2603 10.4441 
-4.42073 12.1733 -4.57835 
-4.37891 5.33444 -9.91815 
-2.41932 0.0469803 -3.18958 
-4.34089 -19.3382 9.7426 
-5.91232 6.94718 -0.144793 
-5.05021 -11.3667 10.6512 
-1.59087 8.95265 1.86969 
-5.05936 -12.8637 10.9326 
6.06277 2.7544 -5.07647 
-0.897247 -0.0531086 8.44678 
-1.35942 0.501698 -6.65322 
-2.63534 -14.7076 12.2073 
-3.25385 11.6313 -2.36172 
5.01704 -3.11141 -5.75102 
0.659745 2.30241 6.93581 
-5.09258 -18.9281 10.8895 
1.69693 -5.48178 -1.69228 
-0.208512 -3.91691 -1.63162 
-1.03296 11.4062 -3.17637 
5.3462 5.25922 -8.59453 
-2.00455 1.26515 -6.7759 
-1.46305 -1.01335 8.88549 
-1.94681 -2.19195 -1.33547 
-4.55551 -11.8129 11.438 
-3.60967 -5.79312 3.38221 
3.99728 -5.17841 2.87383 
2.20531 -2.63395 -8.33107 
0.431564 -1.6176 8.3984 
6.27178 1.41435 -5.51287 
-4.61526 -7.59007 10.3605 
-5.03866 1.48118 0.0911848 
-2.44934 -15.1636 6.33277 
1.14772 -0.78776 -10.0363 
0.577834 -2.71297 -4.4643 
-1.58843 -9.22721 2.8613 
-4.38047 -6.91595 4.71315 
2.91928 7.31188 -10.4796 
-0.978606 -15.4638 6.45112 
1.53705 10.6678 -9.13745 
-3.05352 -20.1569 11.8413 
0.97528 11.2191 -8.02511 
-5.40863 -0.657446 4.86708 
1.76803 -6.94641 7.43744 
0.245461 -8.18202 9.09193 
-3.45132 7.48625 -12.2762 
-0.588895 4.02075 6.12732 
-3.92276 4.21345 -8.73549 
1.54461 -10.7848 4.70065 
4.13782 2.02803 2.6567 
-3.05752 12.369 -7.79668 
-5.1918 9.0211 -10.4441 
-5.3874 2.99566 -0.64919 
2.12332 10.0268 -9.28377 
-2.35446 -2.63233 -0.300844 
2.53527 1.54093 5.60108 
1.79873 -10.2221 3.76881 
1.3392 7.563 -11.8709 
4.42679 -3.2271 2.33781 
5.51234 0.325222 -2.50739 
2.0727 -3.81317 7.24015 
1.66475 1.6479 6.44295 
0.692139 -8.99901 8.56726 
-4.65707 0.57395 0.166902 
-1.6484 -14.7123 11.5635 
1.77803 8.62309 -11.3654 
-4.38244 6.69867 -11.291 
-0.353062 -1.43851 -4.88926 
-0.872396 -8.38142 10.2117 
4.87943 6.62714 -5.23016 
-5.41108 -3.51135 6.79496 
-3.70052 -10.2721 5.25493 
-4.43224 -17.4241 12.5503 
-4.61878 9.7133 -11.2481 
-5.93947 4.69526 0.303096 
0.154828 -7.32988 9.18631 
-3.6391 -17.8881 12.7463 
5.37099 -2.23152 -3.59118 
-0.447834 -1.99116 8.86667 
2.24614 -3.84102 -5.05485 
-4.51578 -10.6854 11.5385 
0.280511 4.55892 5.22724 
-5.69453 6.94483 -5.44643 
-2.33938 12.0773 -3.33859 
-5.32996 -8.64705 9.27428 
-5.42757 -5.66674 7.33408 
4.2262 -1.04318 3.67896 
1.54476 -10.0363 2.75173 
-1.77645 -17.8241 11.021 
-5.73491 5.98171 0.982902 
4.23718 3.02402 1.44647 
4.43479 7.60067 -7.88243 
0.0387567 -5.5182 9.27312 
0.352932 6.27177 3.45281 
2.03935 9.60364 -4.21223 
-5.5498 7.20006 0.710569 
-4.13155 -20.0193 12.2031 
-5.52007 3.98341 -1.6431 
-3.07991 12.4401 -6.13749 
-4.18209 0.621573 7.19804 
-5.29171 -16.1328 10.8956 
4.99602 3.14665 -10.0757 
-5.11647 -16.9492 11.6436 
-4.51352 11.716 -3.46341 
-2.07626 -19.2106 10.4336 
2.90826 8.26104 -2.54123 
4.70576 -0.255303 1.06994 
-4.90444 -4.45822 8.80883 
-5.25342 -2.46268 7.27381 
1.48148 9.15064 -1.56633 
1.05761 2.89533 6.17387 
-4.40989 3.24761 -4.10333 
-2.18211 -2.65391 9.60741 
-5.42972 -7.06232 8.19248 
-0.211829 -5.33127 -0.440138 
5.27167 2.20872 -1.08339 
-1.05928 -7.41866 1.53137 
-2.72922 11.2716 -1.54729 
-3.34991 3.81736 -9.54515 
0.511123 6.92746 2.71265 
-5.29929 -4.57992 7.86887 
-5.41041 6.72217 -7.34209 
-5.85804 4.9994 -1.50183 
-2.95295 3.06367 -8.91872 
1.15744 7.76396 1.12306 
-6.1827 8.18185 -4.42761 
-0.50041 1.52324 7.77681 
-3.66917 10.1031 0.0796062 
-4.80781 -18.9528 12.0908 
-0.422735 11.3379 -10.8225 
4.01662 -2.78443 -9.34523 
1.95042 0.749211 6.69079 
3.27252 -7.33329 3.49041 
6.28533 3.20249 -7.77852 
0.443157 -10.0813 2.40311 
3.49169 3.14787 -11.117 
-2.51389 -18.325 11.7546 
2.75109 1.66473 -11.6318 
4.25459 -4.61 1.47637 
-4.84533 0.0437214 1.09121 
3.2936 -5.26292 -1.78742 
-0.798973 12.0236 -9.63811 
-3.21473 -3.10465 1.40192 
5.59217 -2.39099 -6.39883 
-4.0614 0.396871 -0.79514 
4.48948 -0.194749 2.2604 
3.05602 -3.02139 -8.9145 
-3.78617 4.5485 -9.99685 
5.38126 6.12868 -7.46054 
3.56372 -6.19368 3.52871 
3.5562 6.78088 -1.30078 
5.20107 0.489275 -0.288093 
-3.84542 -12.9578 6.96564 
3.59275 3.02275 3.0548 
-1.00038 10.5542 -0.992226 
-0.410325 2.39646 7.32148 
-2.70559 3.19434 6.82971 
1.26527 9.36621 -11.5662 
-1.30956 -6.50419 1.20672 
-0.522231 11.4038 -4.08305 
-0.753453 -16.7063 8.46673 
-0.957315 -0.0479641 -6.06155 
6.01751 -1.6447 -6.43739 
3.47108 7.81598 -3.41479 
0.894925 -11.8767 7.41249 
-5.04409 6.45546 2.50182 
-0.337141 -11.2309 3.72591 
0.733959 8.44366 -12.1986 
0.554841 -10.6909 3.23561 
4.32793 -1.87863 -10.1626 
-1.64507 0.215518 -5.12355 
1.50221 -0.885139 7.62266 
-2.78678 -3.10423 0.762529 
-1.69911 8.18791 2.75829 
-0.266396 -7.15866 0.763679 
3.28709 -3.72297 -6.5769 
-5.06821 -8.60561 6.30467 
4.2651 3.82227 0.597172 
-0.204283 -3.21274 -2.405 
6.06052 0.169337 -9.80343 
-4.20921 -11.2337 6.33109 
-4.84546 3.13629 -2.91182 
-5.45472 1.06646 3.08618 
6.46627 1.43029 -7.23788 
-4.51522 -0.561293 7.37254 
1.98547 -0.496502 -10.8528 
-5.40522 -8.50447 7.61642 
3.80355 8.001 -8.77413 
0.519405 -4.62964 -1.65495 
0.461254 7.13079 -12.3372 
-3.71714 -6.07578 10.4155 
5.0135 1.882 -10.5732 
-3.97702 -18.4669 8.99747 
4.28245 -3.76246 -5.99625 
3.36809 -3.27721 -7.97264 
-0.045187 -0.00753818 -9.41323 
-2.85939 -10.903 4.83623 
1.36085 7.04623 1.79757 
-4.26393 -21.9091 10.2027 
-1.05758 -2.75178 -1.88887 
-4.55808 -15.7019 8.63113 
-2.82698 4.12587 6.01698 
-2.67035 -6.626 10.9357 
-5.61575 8.46452 -7.18498 
-3.20755 -18.4889 8.4713 
1.08125 3.79374 -12.1992 
0.951594 3.86157 5.37636 
-5.16889 -6.34499 9.06993 
-5.41628 -9.50709 8.66088 
-4.28033 -0.819896 0.976397 
2.89621 -8.36175 3.189 
-1.38955 9.0004 -12.9995 
3.696 -1.43061 4.89727 
-1.53715 -0.979674 -3.29213 
-1.83536 1.51583 7.85422 
-4.20674 -2.68804 2.6916 
-2.18271 -4.20503 10.1918 
2.92345 4.01951 3.11367 
-1.79561 11.4579 -11.1474 
-1.37799 1.13763 -8.68233 
-2.87505 -7.58534 3.21101 
4.27544 0.00114448 3.39858 
-5.19339 -14.8369 9.83999 
-4.64055 8.54506 -11.4139 
-2.46548 -14.0963 6.07038 
-3.78909 2.44552 -4.33239 
6.45266 0.237026 -7.13998 
-0.746227 3.17494 6.92393 
2.48162 -2.85564 6.78094 
-4.58503 1.43581 6.41844 
-3.50385 -22.4196 10.6661 
-0.277947 -0.754858 8.49765 
-3.47471 -11.7736 12.0462 
-4.97301 4.40303 -4.52668 
-0.306407 -0.931453 -5.93138 
-5.41427 -0.0556871 4.11362 
3.18623 4.39081 2.35656 
2.8806 5.4552 -11.0635 
1.59315 4.13914 4.51047 
-5.41247 7.07849 -8.54354 
-1.06854 -13.8243 5.55733 
2.11768 -4.50667 -3.38232 
-2.45023 0.524498 -3.93202 
-5.26399 1.27439 1.09164 
1.19952 -11.6392 5.30909 
0.93738 1.50587 -11.7351 
-3.82675 9.4707 0.895587 
-5.91339 4.51696 1.31952 
-3.36067 -14.7713 6.88872 
-6.18818 6.95862 -1.07605 
-3.40051 -4.63466 10.1228 
5.76377 3.37271 -9.09066 
4.64083 -2.77702 0.214089 
5.40957 3.72726 -3.26111 
-2.40536 -10.7984 11.7606 
0.131228 5.7544 -12.3917 
-2.69746 -17.6489 7.72812 
-2.61175 10.1925 0.555851 
-4.6724 6.01012 3.32486 
-5.17935 -7.44447 9.52317 
-3.9477 -15.2427 7.61758 
2.65857 8.79404 -3.62466 
1.13858 -9.42169 7.89468 
-2.97821 -1.98341 0.0415896 
-1.48281 -3.40111 9.78875 
-5.39364 3.80836 3.51482 
-4.2721 -5.35751 4.01556 
-5.50777 7.94249 -8.05569 
-0.975909 -14.6636 10.5395 
-5.98048 5.70589 -2.82607 
3.25221 5.02988 1.58997 
-1.78662 9.78568 1.1232 
-4.56213 -2.94821 8.55314 
-0.451479 9.81453 -0.327256 
4.50979 6.60504 -4.18222 
-1.96445 12.4096 -7.15203 
-4.9122 9.02857 0.15996 
-3.73057 8.3141 -12.2268 
1.97993 1.94791 -11.9837 
0.371913 -6.79478 0.0527964 
-5.34828 -7.66168 6.78116 
6.42543 2.52867 -7.08714 
-0.0978241 1.46724 -11.2254 
3.2793 0.680278 5.11746 
-5.46467 4.9897 2.7715 
-5.22096 3.21133 -1.77173 
4.45577 -1.11637 2.60057 
-2.01478 10.0447 -12.9652 
2.43492 -3.64259 -5.96217 
5.7843 1.62429 -10.1372 
-5.58311 7.43996 -6.7514 
2.81931 0.394443 5.98074 
3.20202 -6.1375 -0.553351 
-5.02633 10.7421 -2.67566 
-0.314366 -13.9439 9.69074 
2.43009 8.46352 -1.57518 
-5.42817 -8.11109 8.47144 
-2.05903 10.7707 -0.565718 
-5.0902 5.06349 3.68832 
-4.57326 -5.43062 9.63231 
-5.19041 -12.1352 9.23974 
5.77342 2.73093 -4.25489 
-1.56434 6.64178 3.94888 
-4.58816 5.1455 -8.81235 
-1.09439 -17.6984 8.6786 
2.80955 -7.00389 5.5494 
-0.233532 10.7026 -11.522 
-4.57835 2.3407 -2.29051 
-1.44874 -18.0655 9.92433 
3.81253 6.117 -0.681257 
-3.48812 -1.03216 -0.166702 
3.54991 -4.074 -5.30234 
2.30772 -9.04024 5.34113 
-3.62573 12.3492 -6.98106 
4.16446 -4.9185 0.545232 
-4.98237 12.0049 -6.05772 
0.749629 -0.426346 8.11344 
-0.0117268 3.31323 -12.2329 
-5.04994 -3.38127 4.52952 
2.79616 9.12157 -4.75537 
-1.85431 -18.8473 9.3653 
-3.0898 9.95482 -12.2741 
6.40612 0.736448 -6.20721 
-5.01657 7.94448 1.93522 
-4.23646 -20.6872 9.96637 
-5.30762 9.58169 -9.64724 
-5.13582 -17.0334 10.2455 
2.07442 -4.79741 7.20928 
-3.41848 -20.1035 9.4196 
-2.44291 1.97272 -7.66978 
-0.528504 -9.17762 2.17272 
-5.09457 3.87611 -3.21477 
-4.12462 -3.53463 9.23328 
-6.08356 6.66766 -3.43962 
3.95464 -4.40469 -2.34058 
-0.479986 11.772 -5.61826 
-2.68789 -7.72822 11.1401 
-2.66312 6.8566 3.78276 
2.34367 -6.66027 -0.544616 
2.10258 9.39581 -10.4334 
-3.3944 5.10889 5.08907 
-3.70432 -16.3734 12.5869 
0.595482 10.0838 -11.4528 
-2.25375 -11.9586 4.998 
-4.80316 -4.36247 4.39815 
5.85196 -2.23526 -8.8451 
4.9785 -3.15838 -3.92746 
2.61081 -8.26795 1.88703 
-2.528 0.990499 -4.69855 
-3.45088 4.92609 -11.0091 
-5.76064 10.4416 -4.59123 
-2.2646 2.59966 -9.70692 
-4.82738 -11.2666 7.40942 
4.51119 4.33817 -0.629432 
-4.83916 10.475 -10.3762 
2.90216 -5.01729 -2.85278 
-3.70816 -7.20329 10.8282 
-2.28643 2.16637 -8.63574 
-4.99776 -19.9438 10.7725 
-3.37899 6.45817 -12.0137 
-2.94327 -9.07163 3.8441 
4.01761 5.07616 0.00760196 
-1.48829 5.5029 5.07132 
5.63201 5.51684 -6.36157 
-2.60739 -8.94827 11.352 
-4.58122 4.51973 -6.49179 
-5.66795 8.17078 -0.400359 
-4.80157 6.26938 -10.1545 
-5.04573 -16.0632 9.66732 
-3.53362 -1.82816 0.813777 
6.20399 3.73526 -6.5789 
0.186962 11.7189 -7.33468 
0.397333 -9.955 8.89831 
-4.06061 5.79866 -11.0121 
6.28547 2.44064 -8.43229 
0.0235601 10.0908 -1.33589 
-3.51295 -17.1782 7.9465 
-0.902439 12.2462 -8.62247 
5.01768 7.02389 -7.13017 
3.1237 8.4502 -9.53304 
2.97375 7.55953 -1.25446 
-4.52875 4.79432 -7.79533 
-0.581531 -9.96374 2.71661 
2.13578 6.51536 1.53692 
0.0418091 -14.9083 7.22392 
-1.5727 2.34269 -10.5154 
4.76795 7.30396 -6.1541 
-3.21671 6.00499 4.36322 
-0.948804 -4.34588 9.98745 
5.67626 4.19509 -8.64767 
4.34777 0.847139 2.82229 
-4.37531 8.76524 1.24628 
-0.734787 -16.3564 9.46186 
-4.03102 10.712 -11.2517 
-5.68634 9.86433 -2.89897 
-5.32091 0.0441674 3.16857 
0.749714 -4.81639 8.57384 
2.41235 9.8959 -6.94148 
-0.890953 -1.26338 -3.86341 
-6.21193 8.38431 -2.44551 
3.08739 -7.40185 4.43951 
0.918696 -1.80935 -7.14893 
0.300026 -1.44508 -6.45496 
4.40544 -3.71474 -4.56119 
-2.68395 8.88213 -12.7384 
4.27593 -2.16429 3.48935 
5.13302 -2.46545 -1.79217 
-2.46087 -5.43977 1.80562 
-1.46899 -12.0201 11.3722 
-6.21045 8.59823 -3.41865 
5.20382 4.91099 -3.89204 
-5.66697 9.32386 -6.9236 
-2.68211 -15.9379 6.79077 
4.01681 7.06615 -3.29241 
-3.50271 0.234736 7.88188 
5.58825 2.49356 -3.43396 
0.462721 -13.2308 6.44545 
-2.04644 12.3919 -5.95797 
-5.24811 7.10405 -9.63359 
4.46078 -2.18013 2.40582 
3.83613 -0.339325 4.52321 
1.73595 -2.72304 -6.81015 
-3.94229 -13.8344 12.1455 
2.84071 6.31493 -10.8925 
-1.30294 -16.1695 6.94609 
-3.26741 2.52681 -6.18436 
5.74934 4.13594 -5.10924 
0.853424 -11.1451 4.07274 
0.731169 1.37373 7.38899 
-6.0959 5.74996 -0.95593 
0.346063 8.41012 1.08351 
-3.67466 -3.44336 2.32724 
-2.84208 -17.2302 12.3547 
-3.07615 -5.58216 2.58895 
-4.05715 -0.381167 0.0424092 
4.77174 6.04834 -9.17558 
-5.25766 -12.6788 10.0212 
0.752015 10.8547 -10.4909 
-4.11147 2.29092 -3.32654 
-2.16814 -6.4152 1.98813 
1.98585 -7.87841 0.688847 
3.57056 -6.14827 0.503631 
-0.751538 -7.44203 10.062 
-5.41628 8.27477 -9.42836 
-4.48163 -8.97609 5.45229 
6.06114 4.24187 -7.54588 
6.43158 0.268677 -8.10819 
-4.14523 3.68283 -6.06633 
0.378855 -6.45915 8.96089 
-3.33246 3.19881 -8.07391 
2.34727 7.25096 0.612561 
3.13813 -4.44535 5.8118 
2.24435 -7.43496 6.60996 
3.38594 4.177 -10.9717 
-3.95179 -13.8841 7.3515 
4.85369 2.4478 0.0964105 
-3.00134 -21.4544 10.0383 
3.43216 2.42989 3.81972 
-5.18664 -1.46606 6.85092 
-1.7627 -5.39433 1.05207 
3.81785 -3.34218 4.57417 
4.32979 5.2904 -1.13642 
-5.33253 -10.575 8.62612 
-2.45326 6.94091 -12.4714 
-3.90247 -2.14653 8.82562 
-5.75773 4.22567 -0.565809 
3.90871 -2.23055 4.4674 
1.66515 8.0295 0.306059 
6.16657 3.30496 -5.7956 
-5.41712 1.18086 2.09594 
2.46768 9.65377 -5.60073 
-5.00824 -7.21908 5.68998 
0.19918 -12.3108 9.25916 
5.05743 -0.902223 -10.2134 
0.715773 4.88387 -12.2437 
-4.4904 3.8117 -5.01073 
-4.88515 -0.807047 2.49684 
6.06404 -1.83207 -7.70343 
2.82927 -3.65258 6.35553 
-0.451636 6.85685 -12.5508 
-5.19797 -9.37593 6.98908 
3.77788 5.14178 -10.4297 
-3.13964 1.94733 -5.13458 
-1.31026 -13.4836 11.2678 
-5.26324 -13.8286 10.0408 
1.71053 10.2609 -5.14039 
-4.60397 -8.54618 10.558 
2.69076 2.77004 4.59419 
-5.2814 -11.1847 9.68435 
3.54648 7.36783 -2.27973 
-1.62876 11.9927 -4.07512 
-0.701705 -2.96174 9.33147 
-0.518701 -4.59271 -0.721677 
-3.88561 8.45025 2.13408 
4.67543 -3.08016 -8.53487 
2.47405 4.65749 -11.4641 
-4.46163 -9.94589 5.89787 
2.08652 -1.66453 7.17193 
-2.45351 0.543354 8.20612 
-6.14901 9.16987 -4.89457 
0.518413 -6.08376 -0.510662 
2.37743 9.91911 -8.06406 
-1.27899 3.77484 -11.9072 
-5.31997 5.596 -5.30463 
-1.22618 0.734758 8.20043 
-2.58127 12.3717 -4.93123 
4.24221 -3.14906 3.4895 
-1.99213 7.55919 3.3347 
0.795241 -4.11018 -2.51105 
5.91184 4.6899 -6.32219 
-4.90769 4.14275 4.38836 
6.23837 1.08434 -9.28623 
-1.51941 -10.7712 11.3134 
-3.82971 2.94051 -5.37305 
0.738983 8.77046 0.101694 
0.537335 10.0183 -2.07497 
-0.792769 -10.9044 10.7495 
4.53656 5.21068 -9.67591 
-3.01749 -5.47619 10.5412 
-4.07287 -4.534 3.39169 
-0.181805 -12.6873 10.0063 
3.82155 6.17858 -10.1103 
5.08568 3.13521 -1.20898 
-0.600707 -6.10416 0.357108 
-0.805296 5.95795 4.33517 
3.3299 0.661009 -11.292 
1.38131 -7.35451 0.123551 
-4.94362 -0.0359766 6.50495 
-3.59275 -7.82899 4.00818 
-2.12726 0.992606 -5.61173 
5.66377 -1.28001 -9.55295 
4.9651 -3.10916 -7.04602 
-5.54534 2.41203 1.09766 
-5.98267 5.69773 0.10037 
-2.25176 -4.36205 0.968715 
1.23091 -10.6631 7.16725 
1.00591 -5.88599 8.32953 
2.0611 7.32599 -11.3051 
-1.25609 4.7247 -12.2353 
6.31253 -0.96954 -8.0927 
-0.850865 -5.68113 10.0566 
5.05912 -1.324 -0.304645 
-2.83337 -0.46312 -1.74754 
-1.68801 1.14903 -7.80345 
-4.46557 -17.4975 9.20668 
1.70796 -4.77264 -2.56989 
0.0924882 11.6243 -9.8354 
-1.76627 3.55632 6.63978 
0.16527 0.545934 8.05968 
-4.38422 11.7633 -8.24136 
-4.41771 -12.2619 7.39837 
-6.22143 6.1839 -2.01878 
-1.9555 -13.1925 5.4843 
-5.90051 8.48259 -1.30146 
-4.49969 1.32419 -0.968572 
-4.93675 -9.95467 11.0766 
-1.44128 -16.5798 10.9535 
-1.66349 -0.288619 -4.18772 
5.95806 -1.32056 -5.39122 
2.05192 -4.10411 -4.19769 
-2.8153 -12.5508 5.73936 
3.55377 -6.55071 2.49166 
5.47967 5.06113 -5.18339 
-1.07974 10.8834 -12.0868 
2.81581 -6.07129 5.93524 
-0.169844 -2.10543 -3.99448 
-1.45319 10.1419 0.102784 
1.45916 6.23045 2.5483 
-5.25851 -6.45751 6.09726 
2.71031 9.19786 -9.41973 
-3.91082 10.7167 -1.21322 
0.241587 2.32209 -12.077 
2.4384 -3.11004 -7.17641 
1.7211 10.5653 -7.82931 
-5.35357 -5.494 6.17084 
1.341 2.72747 -12.1375 
-4.70347 -16.014 12.1515 
-4.92802 4.84521 -5.63371 
-2.27161 4.59478 -11.7514 
-2.72281 -1.41356 -0.934924 
-4.28031 -12.8218 11.7789 
-2.79093 2.34645 7.31617 
-4.4376 -22.918 10.8985 
5.59787 -1.11974 -3.73433 
-1.91781 -18.3439 8.30934 
-5.61074 5.58063 -3.98009 
-2.63985 8.93885 2.11025 
-1.48847 6.80582 -12.5823 
-4.69545 -12.8608 8.2359 
3.14043 -1.42607 -10.6532 
-1.29636 -1.85562 -2.57953 
2.01107 2.42357 5.70427 
-4.23348 -4.52385 9.66552 
-3.27237 1.58226 -4.05167 
-0.746199 0.341527 -8.54191 
0.947714 -2.35079 -6.00648 
-1.60487 -1.86752 9.17172 
-1.77333 -10.0148 3.45513 
0.243756 -3.00692 -3.31253 
2.05508 -2.17961 -9.5087 
0.463134 -13.4509 7.30383 
-0.171461 8.29535 -12.66 
4.41946 0.0438188 -10.8272 
-3.44356 12.1393 -8.75647 
-5.18545 1.86115 5.05961 
5.55176 3.92556 -4.17942 
-4.84687 -2.69316 3.79781 
0.791194 11.3037 -9.24679 
-0.556447 -6.49602 9.8598 
-5.15465 7.77619 -10.42 
3.0119 9.28158 -6.58675 
3.19441 -7.57342 2.33768 
4.00653 -4.82804 -1.21587 
1.14744 11.002 -6.87139 
-4.59613 -7.99474 5.21892 
-2.179 8.03304 -12.7609 
0.312846 -8.61389 1.42331 
6.39138 2.16147 -6.21045 
2.81548 -1.91703 6.37339 
-1.4152 -14.664 5.89716 
-5.15915 -9.24659 10.068 
5.41457 -1.63941 -2.62264 
5.91437 -0.514889 -4.5955 
-2.02297 -1.43893 -2.0033 
3.33944 -0.663141 5.49068 
1.24155 0.427416 7.493 
0.00146054 10.7644 -3.09397 
-2.92472 11.9441 -9.66804 
-3.83467 -8.48354 4.47748 
-0.845669 2.74789 -11.6355 
-2.64017 1.77935 -6.15988 
2.62902 3.55051 3.94348 
0.841135 -9.41451 1.72427 
4.54547 -3.66713 -3.10268 
-4.59695 7.50138 -11.353 
-5.09079 11.2194 -7.69892 
-5.55543 2.25884 2.1693 
1.47592 10.2636 -10.4585 
-3.8411 3.71019 5.81013 
0.629363 9.33358 -0.767379 
-1.20004 -11.7585 4.36836 
-4.68616 12.0702 -7.05698 
-2.94152 11.4793 -10.6012 
1.12613 -8.0112 8.12496 
3.7083 -5.29816 4.00957 
-1.53674 11.8125 -10.4051 
-3.26551 -2.73398 9.55609 
2.1741 5.167 2.87529 
2.30349 -9.47509 4.37048 
-3.00302 2.49912 -7.27733 
3.68647 -6.08649 1.3241 
4.3645 2.75663 -10.6697 
3.26371 -6.33524 4.6548 
-0.791062 1.05257 -9.81392 
5.05719 -2.97198 -2.54183 
-5.88075 4.02018 2.33116 
1.08366 -3.44706 8.18526 
6.05811 0.514259 -4.8099 
5.38866 -2.66423 -7.86247 
1.27699 -1.6656 -8.94628 
1.45784 -2.10668 -7.9825 
5.78368 5.16393 -7.61171 
5.01056 4.31583 -9.54672 
4.4772 -3.87538 -0.746154 
-0.160586 -12.7991 4.88038 
-5.27122 2.89946 4.28979 
4.23973 7.47011 -4.72598 
-4.01571 11.4172 -10.1825 
-5.43133 -4.55767 6.7593 
4.59238 -3.63713 -1.68105 
0.360053 -2.85371 8.71369 
-5.47463 10.1731 -7.43058 
-4.58042 2.34393 5.92431 
-3.52684 12.1038 -3.3226 
-5.37385 4.77266 -3.68877 
0.06545 5.60981 4.322 
-1.0406 -10.6865 3.46493 
0.14361 11.8951 -8.50493 
-0.734225 -12.1721 10.7579 
-3.11483 1.37466 7.71709 
1.83553 -9.70103 6.17513 
-5.40553 -1.74775 5.2201 
-3.0436 9.58989 1.51402 
3.89166 -5.3251 -0.312022 
-5.34329 -4.19203 5.67098 
-3.39747 1.27556 -3.22247 
-5.15791 5.9017 -7.80691 
-5.35318 10.8659 -3.70704 
-1.20406 -5.24596 0.403357 
-6.27166 7.48116 -1.81198 
3.7569 -4.33314 -3.44316 
-0.59814 -2.26486 -3.06563 
-0.202318 -8.92307 9.56773 
4.37489 1.14409 -10.94 
0.347432 -2.04875 -5.30891 
-5.13301 0.0987717 1.98778 
-2.16317 -9.79037 11.494 
-2.85628 4.12022 -10.9402 
5.25464 -2.74846 -4.98177 
-3.08891 10.7486 -0.592657 
-3.80432 -2.25963 1.70598 
5.44086 2.2578 -2.23003 
3.3738 -3.2199 5.48924 
-5.23979 8.11094 0.70562 
0.946001 -12.1964 6.5839 
5.13727 -2.42277 -9.61588 
-0.0729324 0.732659 -10.3389 
1.37293 -11.0579 6.24442 
0.130913 -11.9468 4.38508 
-5.96015 9.59579 -3.82037 
-0.190188 -11.3472 10.0402 
-3.76689 0.706964 -1.72712 
-3.58317 -8.38007 11.2071 
3.50095 8.20967 -4.3566 
-3.92317 1.87827 7.0643 
1.2721 5.60641 3.36149 
0.196545 -3.85053 9.0085 
-5.69875 6.23406 -4.58013 
1.68503 -8.2537 7.3758 
1.68704 -2.72296 7.5979 
-1.80213 -5.08226 10.4211 
-3.91077 9.44623 -12.091 
1.93252 4.58231 3.72254 
0.703575 10.3674 -3.48043 
-1.48618 -9.05407 10.8033 
-3.42296 -9.69942 11.8464 
0.875178 5.0376 4.29697 
-5.13962 -3.43315 7.91319 
-3.78508 -6.78085 3.96339 
0.776619 0.0613888 -10.4559 
2.89546 6.22604 0.902678 
1.68206 4.98833 -11.8676 
-4.31345 -16.6728 8.6014 
5.42714 0.267819 -1.3941 
-4.97157 -13.4859 8.9267 
-4.78331 10.277 -1.69243 
-3.22525 -21.2479 11.3105 
-5.46813 10.7182 -6.56595 
5.64482 -0.0128076 -3.56556 
-4.18877 -9.27765 11.3898 
-1.51643 -6.87375 10.6614 
-2.60072 3.36249 -10.3768 
-5.27661 -10.0537 7.69692 
1.10202 6.143 -12.095 
3.83565 3.33404 2.15577 
5.92607 1.58826 -4.48047 
-3.71412 2.92781 6.41034 
-1.77586 -7.93406 10.8979 
2.82158 -7.14499 0.357971 
0.853382 10.957 -5.52985 
6.22258 -0.4872 -8.94463 
-3.99135 12.3384 -5.51667 
0.824415 -10.7437 8.06929 
3.60689 8.67573 -6.76485 
1.16862 -2.00219 8.01823 
-0.659641 6.86488 3.3827 
0.729573 -12.3851 5.49791 
2.95783 -0.249738 -11.1878 
-5.60852 5.45043 1.88198 
5.6787 0.941895 -3.69181 
2.04618 -8.58414 6.50637 
4.20205 7.04963 -9.08262 
0.207025 -13.3377 8.83673 
1.87404 6.25881 -11.6142 
-3.53959 -10.6601 12.0078 
-0.76933 9.76949 -12.5953 
-2.60036 -10.0019 4.05125 
-1.88927 3.27159 -11.2531 
2.25486 -6.27877 6.8209 
-3.00101 5.56031 -11.8365 
3.57878 8.61484 -7.95503 
4.82911 -2.68451 -0.646798 
2.67156 -5.13461 6.44265 
-0.713771 7.51267 2.73936 
-4.17876 4.32535 5.15181 
4.45024 -3.88804 0.203499 
-3.5735 -9.55785 4.69077 
-0.13867 4.34543 -12.3428 
-5.46787 2.17588 3.43436 
-4.81746 2.09316 -1.32 
1.0715 -7.03126 8.24809 
-4.0041 1.53676 -2.30536 
5.48859 -0.721527 -2.49681 
-2.0311 12.2199 -9.27961 
0.146847 -10.8268 9.2578 
1.55475 9.74866 -3.51094 
-5.43097 -2.35144 6.04933 
-5.30655 2.36506 -0.0631114 
-2.06393 10.832 -12.2233 
4.05765 -4.19937 3.69546 
0.279238 7.75593 2.01895 
-2.49899 4.91192 5.49245 
3.30061 -2.23259 5.64627 
-5.69124 9.42112 -2.08047 
0.307186 11.4668 -6.30364 
4.56447 6.13036 -3.3443 
3.93668 1.51798 3.62235 
2.50537 8.29485 -10.5685 
1.54949 -9.58805 7.06394 
-5.49551 8.93014 -8.5459 
-2.49469 -19.2684 11.4394 
-5.37414 0.587199 4.9795 
-0.0688704 -0.45585 -8.33688 
-4.77438 3.1285 5.1996 
-4.81667 -1.8192 8.01446 
4.67816 3.41888 -0.211321 
0.527564 -12.7211 8.02038 
-5.21394 -1.89143 4.27445 
-3.39228 -11.3874 5.54569 
4.77242 -1.54562 0.534636 
3.84571 4.28271 1.19118 
