-1.19476 -11.1902 6.71024 
-4.14681 -5.65583 14.1834 
1.41853 10.4944 -3.7214 
1.08356 -1.75798 -3.51639 
-4.9099 4.28727 -1.70331 
-4.39428 -12.7178 12.7338 
-0.28588 1.46024 10.081 
1.94129 -1.8198 -5.29601 
2.83033 8.09966 -14.1264 
-4.42146 -8.8776 13.8488 
-0.92874 10.6142 -15.3347 
-1.48469 13.2156 -9.82675 
-5.4156 6.0876 3.35707 
-3.23684 -9.53144 8.73256 
4.83894 9.03283 -10.573 
-1.74672 0.961728 11.722 
-0.204214 11.4632 -3.64748 
3.25032 -3.89289 8.24564 
1.03284 3.3147 -15.0937 
4.32214 -9.54916 3.20081 
-4.52794 11.6297 -7.33216 
-1.54468 -22.7371 13.2241 
0.181421 12.8434 -9.80169 
8.31742 3.13196 -7.82557 
-4.93415 -3.03857 11.4914 
-4.46016 -10.4045 13.2916 
-3.21748 3.90298 -9.37437 
-2.8198 -15.2323 10.2455 
-0.605111 -1.51208 -0.696063 
-3.66978 -22.5928 13.738 
4.60843 6.95522 -2.07333 
-4.44031 7.3436 5.69896 
-4.22484 1.75498 2.61862 
-4.32678 -4.17536 13.161 
-5.909 8.15514 -4.12646 
0.972083 -4.37985 -0.0239232 
-4.59604 10.1812 0.29358 
-4.10899 -9.8832 10.6732 
-5.26235 3.15731 4.51599 
5.9796 -6.04167 0.287862 
7.51959 4.62261 -9.55119 
3.43904 -5.6107 -1.30371 
-3.59222 -4.51505 6.22588 
5.91078 4.19845 -0.841235 
-1.11664 -4.04443 2.57543 
-3.74058 -13.0932 10.9629 
-5.44772 8.46122 -7.02146 
4.16306 -3.26263 -6.24934 
5.65289 -2.66668 -9.71003 
-2.03483 -1.95543 2.28689 
1.55995 -0.959686 -11.4079 
5.18519 -7.88876 5.37171 
-4.36556 8.14639 -12.7701 
-4.31659 -18.2412 13.8067 
-2.63428 12.7998 -8.0959 
-0.885234 1.27763 -11.2265 
-3.66407 -1.26216 12.63 
5.32615 -7.43607 2.54414 
3.1977 4.18704 -14.1407 
-4.42386 -16.4384 15.2189 
2.82234 -1.36349 -12.7793 
-0.497085 -18.3147 14.402 
7.83919 -1.15207 -8.85362 
5.69158 -0.960457 2.97371 
1.85279 -1.76908 9.4291 
-5.403 -0.389158 7.99745 
2.06993 10.9638 -6.89021 
7.07646 2.16513 -2.1154 
-5.82815 10.4793 -5.42665 
-0.396713 -18.0162 9.98932 
-5.33785 2.23993 6.03408 
-3.11553 3.3748 -6.36823 
-1.36042 4.40705 -15.0552 
3.33367 -7.13532 8.9055 
1.78588 10.7412 -13.6512 
-2.64633 12.4475 -5.8193 
-2.47977 9.55362 2.91111 
1.79307 -12.3727 5.758 
-0.492511 11.6768 -14.2038 
4.80657 1.21721 3.72368 
1.21836 10.3699 -14.8436 
5.72696 2.51303 1.2005 
5.05932 4.32712 -12.9343 
1.37029 -6.25125 1.18755 
-3.35778 12.3741 -3.87075 
-2.81182 -20.7286 11.7987 
-1.98901 12.3838 -4.81548 
6.10143 7.05184 -10.6498 
-5.01045 -0.208225 6.36098 
3.33669 -11.4427 4.63051 
4.04102 5.30194 -13.4761 
-4.12915 -7.09003 8.95953 
-0.989963 -0.183567 -1.77808 
-1.15991 -19.0784 15.348 
1.91959 2.3272 -14.7435 
-4.67837 5.77858 7.15093 
1.92973 7.87773 0.576586 
-1.36148 -6.60249 14.7163 
-5.57048 8.79614 0.479255 
3.15341 -7.13444 0.435729 
-5.51015 7.41716 1.58555 
-0.182292 -9.86351 5.17707 
-6.07151 7.36986 -2.51076 
-1.64344 1.33291 -4.49643 
3.87804 7.48774 -13.1187 
5.87128 -4.11528 -3.5396 
-2.6631 0.665008 -0.0238497 
3.61391 9.30917 -4.98468 
-2.97228 0.177877 1.73587 
-2.85015 -9.79809 16.0158 
-4.88155 7.58853 -9.24401 
4.21972 -2.79669 -9.53051 
7.44672 -0.112693 -2.64229 
0.136341 -8.22338 3.73051 
-1.17438 1.53211 -9.15571 
5.77457 -5.33702 2.79188 
-3.05447 12.8281 -9.37433 
-4.23795 -15.2816 12.868 
-4.69374 11.2552 -9.4032 
-0.520957 1.20821 -12.8239 
0.36781 -0.384355 10.3813 
3.52676 -5.28508 8.2531 
-4.11966 5.6962 -10.1247 
-0.464108 -16.0101 14.7148 
6.24542 2.19595 -12.8114 
1.19115 -14.7787 11.9323 
5.54739 -0.128834 -13.2052 
3.57259 4.75864 2.54429 
-1.01997 -11.7928 15.3039 
-0.574253 -5.03856 13.4769 
-0.67946 8.31868 3.69244 
6.74718 1.19555 -0.491867 
-5.76643 6.83431 0.0607782 
-2.27893 -22.3201 15.7731 
-1.83181 -1.20553 12.6013 
-3.3901 2.02479 -1.35039 
-2.51933 3.70776 -12.6618 
0.596827 -8.70355 13.0155 
-4.15134 10.0309 -12.5778 
3.02407 8.90346 -2.8562 
-2.79705 5.67027 8.46165 
1.707 -11.9745 11.7191 
5.71761 7.14614 -4.72819 
1.17678 -4.41802 11.1154 
-2.11421 12.0151 -13.0967 
4.69682 -3.32312 5.92221 
5.33826 -1.75219 -12.2734 
2.70971 -9.85864 9.95456 
-5.14024 8.48837 2.61507 
-2.49289 -23.6478 13.9457 
-3.04603 11.4188 -1.04255 
3.89771 5.93814 0.543147 
-0.230924 -2.92638 12.1921 
0.657099 -12.0078 13.5274 
0.640044 -0.349622 -6.18913 
-3.24006 -14.9534 16.8282 
-0.496576 -5.73562 2.89912 
-0.710968 -21.1996 12.8683 
7.20985 3.37055 -3.3993 
1.46985 1.24825 8.40291 
3.70938 3.60774 3.67555 
-3.93157 -11.4992 15.5507 
-5.84159 9.77603 -1.28796 
2.74698 0.212753 7.56272 
-4.88921 3.61354 0.108268 
-2.37522 -11.9364 8.27067 
0.89872 3.8696 7.1631 
2.18483 -4.82419 -1.03209 
7.63035 -0.640445 -10.3954 
6.42773 -4.46072 0.0427583 
-2.74933 -4.09389 4.71999 
0.127373 9.37763 0.460414 
-3.70186 -2.56833 5.06187 
0.176928 -14.524 13.9501 
-4.7181 5.06198 -4.73805 
3.93501 -4.28326 -3.43183 
5.63657 -2.97541 -7.72912 
4.3602 -10.1139 6.48669 
-1.41621 1.6362 -6.27703 
2.8404 -8.37289 1.76378 
-2.36818 6.93665 -15.3336 
-4.38953 -20.0417 15.2543 
1.51769 12.0156 -9.86085 
-0.281054 0.625515 -7.4733 
3.58464 -8.50957 8.68936 
3.09861 -11.9418 7.80378 
-2.4732 12.7809 -11.7151 
-3.68359 -17.1939 17.002 
6.487 -2.58638 -7.11084 
1.28817 -15.5293 10.1795 
6.06917 7.35411 -7.31778 
0.225317 6.44626 5.43454 
3.56889 -10.7212 8.27705 
-5.196 -2.589 8.74849 
-2.7622 10.7444 0.432852 
6.94193 -0.831917 -0.529245 
-4.59867 11.9952 -2.80112 
0.689567 -17.2086 12.0332 
-1.77894 -6.57078 5.00435 
-3.49637 -0.549353 3.53545 
-3.66154 6.15005 -13.3152 
-4.69175 -5.9309 10.9628 
3.69577 9.77313 -11.7195 
-4.93859 11.9245 -5.27705 
-2.8571 7.87749 6.17305 
2.30911 -12.2814 10.1068 
7.73645 2.66373 -11.0876 
-1.90003 3.87095 9.99451 
0.731066 6.14257 -15.4366 
6.47102 -1.20134 0.904073 
3.8357 1.82947 -14.1278 
1.868 -6.97559 10.8187 
-3.80878 8.04625 -14.221 
-3.49904 -19.2551 12.3379 
-0.147079 12.0851 -6.18414 
8.18525 1.21845 -5.97801 
-5.27898 -1.33781 10.206 
-3.04065 -6.82492 15.9628 
-0.486194 8.04565 -16.1476 
-1.01491 -15.2931 8.68426 
-0.661176 4.43692 8.38024 
-4.03265 -20.6911 16.8727 
3.88211 10.0272 -7.83945 
-4.71174 1.18882 4.73363 
2.26359 4.10944 5.05444 
-4.71137 -4.08189 8.49252 
0.096953 10.5352 -1.88499 
5.85823 -2.93789 2.70285 
-0.957322 9.57878 1.65926 
-0.217093 -12.9909 6.93815 
-5.36044 5.06159 5.45312 
2.63421 -3.46983 -3.18576 
7.44223 5.24774 -7.16481 
1.26731 -2.91889 -2.00029 
-5.18404 3.73589 2.69666 
2.66103 8.29259 -1.01248 
-4.54052 2.4667 9.60079 
-0.483145 -8.78358 14.5481 
-4.14604 4.97217 -7.04797 
4.09401 -2.25763 -11.4615 
5.98787 -3.24324 -5.21219 
-3.81628 -6.0889 7.51194 
7.14 -2.67789 -2.30285 
4.10129 -1.85907 6.76291 
0.678952 12.2623 -12.3463 
-1.02577 -14.0233 15.3534 
-4.82596 9.61448 -10.4657 
0.690056 -0.308977 -10.2181 
-4.80116 0.59934 10.2721 
4.83195 -5.83656 6.25053 
-6.03597 10.8249 -3.9895 
-2.02799 -16.4618 16.3317 
3.00718 -2.45307 -8.07092 
-3.01901 -17.2498 10.9831 
3.69659 -0.0592547 -14.0485 
1.02268 7.09283 3.2137 
